ply
format ascii 1.0
element vertex 667
property float x
property float y
property float z
property uchar red
property uchar green
property uchar blue
property int object_value
end_header
0.5628576874732971 4.393208026885986 1.617950201034546 152 223 138 6
-0.49088144302368164 0.5085662603378296 0.06343822181224823 255 187 120 4
0.10244027525186539 0.1040816530585289 -0.32011672854423523 174 199 232 2
-0.40866026282310486 0.6204906105995178 -0.8673951029777527 152 223 138 6
1.578756332397461 1.588401436805725 2.083353042602539 174 199 232 2
0.3602963984012604 4.149011611938477 0.588538646697998 174 199 232 2
-0.4582047164440155 0.6923022270202637 0.6168496012687683 44 160 44 5
-0.07928500324487686 0.07075046747922897 -0.3179131746292114 174 199 232 2
0.018347540870308876 -1.0081110000610352 3.2612624168395996 31 119 180 1
-0.03358980268239975 -0.09834139794111252 -0.6647585034370422 152 223 138 6
-0.6480500102043152 -1.9274054765701294 4.09319543838501 174 199 232 2
-0.12442958354949951 0.1637466549873352 -0.4065397083759308 255 152 150 8
-0.6022982001304626 0.5931854248046875 0.3108682930469513 255 127 14 3
-0.04147131368517876 -0.09386973083019257 -0.7287483215332031 255 152 150 8
-0.2859329581260681 0.041942156851291656 -1.1865344047546387 255 187 120 4
-0.05039533972740173 0.25283169746398926 -0.2927579879760742 44 160 44 5
-0.2706347405910492 -0.2534826099872589 2.7358455657958984 255 127 14 3
0.2817637622356415 -0.06858272105455399 1.7835702896118164 31 119 180 1
1.444426417350769 -1.2906322479248047 3.17448353767395 31 119 180 1
-0.18525992333889008 2.6082656383514404 1.7997889518737793 255 152 150 8
-0.103758305311203 3.2580275535583496 1.3315411806106567 214 39 40 7
0.031073888763785362 0.19577860832214355 -0.3232942223548889 44 160 44 5
0.6424885392189026 4.431790351867676 1.5365512371063232 152 223 138 6
0.2725597321987152 0.014765780419111252 -0.2015039622783661 255 127 14 3
-0.16815438866615295 0.3428148329257965 -0.5042165517807007 174 199 232 2
-0.32500794529914856 0.6829467415809631 0.42299067974090576 174 199 232 2
0.0301247239112854 -2.004009485244751 4.204989433288574 0 255 0 221
0.5083600878715515 -0.5916382670402527 2.182009696960449 255 127 14 3
0.23014996945858002 0.19931475818157196 -0.11523421853780746 255 152 150 8
0.928972065448761 -0.5519998669624329 2.0991599559783936 148 103 189 9
0.4408053457736969 0.90535968542099 2.862729549407959 174 199 232 2
-0.1418403536081314 0.38310718536376953 -0.4533625543117523 255 152 150 8
-0.043179742991924286 0.42786747217178345 -0.3410913348197937 255 152 150 8
-0.07357887178659439 0.35760411620140076 -0.320343017578125 214 39 40 7
-0.08947005867958069 0.2780483067035675 -0.36649781465530396 44 160 44 5
-0.3112105429172516 -0.942306399345398 3.225626230239868 255 187 120 4
0.4117371737957001 0.9366576075553894 2.8010094165802 174 199 232 2
-0.38643112778663635 -0.7286726832389832 3.248572826385498 31 119 180 1
-0.22434817254543304 0.28090617060661316 -0.5195345282554626 255 127 14 3
0.30586478114128113 1.3259413242340088 2.438516855239868 255 127 14 3
0.2463880479335785 1.6081223487854004 2.2722456455230713 255 187 120 4
-0.1445784568786621 0.4141288101673126 -0.40917035937309265 255 187 120 4
-0.01608884334564209 0.0657777413725853 -0.32025089859962463 0 0 255 222
-0.10085326433181763 2.939826011657715 1.7545487880706787 255 152 150 8
0.1389058232307434 3.881309986114502 2.0251948833465576 255 187 120 4
-0.3437117040157318 -0.17587977647781372 3.4673497676849365 255 152 150 8
0.41712647676467896 3.0983102321624756 1.9652806520462036 255 187 120 4
1.0842198133468628 3.646106243133545 1.7051351070404053 255 127 14 3
0.5585250854492188 2.635690927505493 2.3231730461120605 31 119 180 1
0.008199183270335197 0.3374054431915283 -0.3049898147583008 174 199 232 2
0.9901153445243835 3.514916181564331 2.0720012187957764 44 160 44 5
0.006208455190062523 0.3486953675746918 -0.3006194531917572 255 152 150 8
1.2567014694213867 -0.8682932257652283 3.2965340614318848 31 119 180 1
-0.1308532953262329 0.48879554867744446 -0.3704330027103424 255 187 120 4
0.8077836036682129 4.141407012939453 1.6169625520706177 255 127 14 3
-0.16402055323123932 3.149003267288208 1.3432447910308838 214 39 40 7
0.012090042233467102 4.3358330726623535 1.6511163711547852 255 127 14 3
1.1568384170532227 3.490335702896118 2.2382941246032715 152 223 138 6
-0.08449386060237885 0.2563324272632599 -0.37551167607307434 255 187 120 4
-0.11962838470935822 3.0252742767333984 1.7365927696228027 255 127 14 3
0.9954090714454651 4.065732002258301 1.3734945058822632 255 127 14 3
-0.13148319721221924 0.49881479144096375 -0.36550644040107727 255 187 120 4
0.7144936323165894 3.9411091804504395 1.7456263303756714 44 160 44 5
-0.5092862844467163 -0.7701674699783325 3.239269733428955 31 119 180 1
0.3726983070373535 3.281168222427368 1.803555965423584 255 187 120 4
0.8278204798698425 4.6163434982299805 1.4777891635894775 152 223 138 6
1.0699595212936401 3.9590604305267334 1.4700549840927124 255 127 14 3
0.18178710341453552 0.38185063004493713 -0.2706436812877655 255 0 0 220
0.09221795946359634 0.37045472860336304 3.071018695831299 31 119 180 1
-0.5478509068489075 0.5632079839706421 -0.6728267073631287 255 187 120 4
0.02546038292348385 2.986013889312744 1.6460686922073364 174 199 232 2
-0.17989517748355865 0.3327678442001343 -0.5093797445297241 174 199 232 2
0.42966216802597046 -1.9613937139511108 3.605928659439087 0 255 0 221
0.31855839490890503 3.7086408138275146 1.5948764085769653 255 127 14 3
0.2361603081226349 4.559322834014893 1.7678327560424805 214 39 40 7
0.8953586220741272 3.962669610977173 1.876777172088623 44 160 44 5
-0.01025019958615303 0.21829599142074585 -0.34121981263160706 152 223 138 6
0.010957342572510242 -2.0924899578094482 3.658475399017334 0 255 0 221
-0.21983107924461365 -1.4379103183746338 3.679694175720215 174 199 232 2
-0.10933565348386765 0.19374226033687592 -0.3790462613105774 255 187 120 4
-0.08618951588869095 0.32567498087882996 -0.33989450335502625 255 152 150 8
0.7367291450500488 3.8785693645477295 1.8087917566299438 44 160 44 5
-0.0131352124735713 0.3665831685066223 -0.31366339325904846 44 160 44 5
-1.0177481174468994 1.3959598541259766 2.1411421298980713 174 199 232 2
0.7476288080215454 4.634923934936523 1.7239845991134644 255 127 14 3
0.23610819876194 0.8361993432044983 2.7112114429473877 255 127 14 3
-0.14299999177455902 -1.7132961750030518 4.386237621307373 255 152 150 8
-0.1149207279086113 0.23174910247325897 -0.34602123498916626 44 160 44 5
0.010138170793652534 0.2966562509536743 -0.2688765525817871 152 223 138 6
0.3263024091720581 0.5932448506355286 -0.13913403451442719 174 199 232 2
-1.4108128547668457 0.3670097887516022 2.5374996662139893 31 119 180 1
-0.023345332592725754 2.963475465774536 2.2052671909332275 255 187 120 4
1.286397099494934 3.721780776977539 1.842512607574463 255 127 14 3
1.6860088109970093 0.20892125368118286 3.194697380065918 174 199 232 2
0.4665986895561218 3.744128465652466 1.5184078216552734 255 127 14 3
-0.08086319267749786 0.29928284883499146 -0.3680194914340973 255 187 120 4
1.6493113040924072 3.7094099521636963 1.8940452337265015 214 39 40 7
-0.4798756539821625 0.6199761033058167 0.037732016295194626 255 187 120 4
-0.12213660776615143 -0.1483692228794098 -0.2922359108924866 174 199 232 2
-0.6316468715667725 0.4629039466381073 0.09513868391513824 255 187 120 4
1.5641651153564453 3.506351947784424 1.7626451253890991 214 39 40 7
-0.0003172776196151972 0.04519012197852135 -0.3151848018169403 44 160 44 5
0.2317708134651184 0.45870503783226013 -0.24463798105716705 255 0 0 220
-0.5887389779090881 -2.039700508117676 3.7390265464782715 0 255 0 221
-0.23292741179466248 3.426572322845459 1.5558279752731323 214 39 40 7
0.24420537054538727 1.9123846292495728 2.2622196674346924 255 152 150 8
-0.5349145531654358 0.6676880121231079 -0.8882915377616882 255 127 14 3
-1.341530680656433 0.2065379023551941 2.562371015548706 31 119 180 1
-0.1962328851222992 -1.7648509740829468 4.4490966796875 255 152 150 8
0.08393038064241409 3.0702896118164062 1.5817956924438477 255 152 150 8
-0.6426218152046204 0.52407306432724 -0.8058638572692871 31 119 180 1
-0.48500555753707886 -2.3271079063415527 3.8785412311553955 0 255 0 221
0.02925177663564682 0.30092114210128784 -0.2859709560871124 152 223 138 6
-0.3115953505039215 -0.9165844917297363 2.7424850463867188 152 223 138 6
-0.05138278007507324 -2.4308624267578125 3.9156010150909424 0 255 0 221
-0.5825457572937012 0.6085018515586853 -0.881938099861145 255 127 14 3
0.2838277816772461 2.552417516708374 1.8576903343200684 255 187 120 4
-0.06629149615764618 0.08753450959920883 -0.35686641931533813 255 127 14 3
-0.35331034660339355 -0.39397358894348145 -0.42149144411087036 255 187 120 4
-0.082427017390728 -1.4997297525405884 4.341799259185791 255 152 150 8
-0.3216640055179596 -0.0808640792965889 -0.47079432010650635 44 160 44 5
0.22428549826145172 0.5171089768409729 -0.25524571537971497 255 0 0 220
-0.08847221732139587 0.005343674682080746 1.6918258666992188 214 39 40 7
0.4632767140865326 0.27782660722732544 2.708378314971924 255 152 150 8
-0.5882801413536072 0.4934696853160858 -0.19200244545936584 255 187 120 4
-0.13871803879737854 0.5545526742935181 3.049511194229126 31 119 180 1
-0.0819019302725792 0.32497307658195496 -0.34902313351631165 255 187 120 4
0.9171414971351624 -0.6717467308044434 3.1287729740142822 31 119 180 1
0.7854936718940735 -0.6817354559898376 2.2581167221069336 148 103 189 9
-0.09167381376028061 -0.152254119515419 -0.34609004855155945 255 127 14 3
0.5759204030036926 4.38949728012085 1.6501219272613525 152 223 138 6
0.7331768274307251 0.1511625349521637 2.5692930221557617 255 127 14 3
-0.06063247472047806 -0.994938313961029 4.111207008361816 255 152 150 8
-0.7567930817604065 -1.8257012367248535 3.773372173309326 0 255 0 221
0.4238773584365845 4.138133525848389 0.6111545562744141 174 199 232 2
-0.35903200507164 -0.3698107600212097 -0.4155432879924774 255 187 120 4
0.015015934593975544 0.20035573840141296 -0.319210022687912 44 160 44 5
-0.24384312331676483 0.2810179591178894 -0.5711026787757874 255 127 14 3
-0.3137875199317932 2.0358166694641113 1.6344285011291504 255 152 150 8
0.07279542088508606 0.11679045110940933 -0.2639476954936981 255 127 14 3
-0.1761162430047989 -1.7222634553909302 4.4474287033081055 255 152 150 8
-0.6322733759880066 -1.9244532585144043 4.0945868492126465 174 199 232 2
0.011623860336840153 0.3458673655986786 -0.305900514125824 44 160 44 5
-1.3459821939468384 1.850953221321106 1.9068331718444824 255 152 150 8
0.8605647087097168 3.8257923126220703 1.4336333274841309 255 127 14 3
0.6829853057861328 -0.6165434122085571 2.0820040702819824 255 127 14 3
-0.06318089365959167 4.1534953117370605 1.6401156187057495 214 39 40 7
0.6358011960983276 4.150018215179443 1.8987911939620972 44 160 44 5
-0.20300744473934174 4.094034671783447 0.7423180341720581 174 199 232 2
0.3167113959789276 3.23886775970459 1.959930181503296 255 187 120 4
0.2376735508441925 0.405726820230484 -0.27359992265701294 255 0 0 220
-0.08618512749671936 0.23089754581451416 -0.37790483236312866 255 187 120 4
-0.11690788716077805 0.1814131885766983 -0.37837690114974976 255 187 120 4
-0.47185754776000977 0.6785144209861755 0.6587581038475037 44 160 44 5
-0.14210665225982666 -1.6514623165130615 4.423951148986816 255 152 150 8
0.3829062283039093 4.148121356964111 0.5965636968612671 174 199 232 2
-0.05996483564376831 4.180719375610352 1.6364684104919434 214 39 40 7
1.5654217004776 3.489196538925171 1.768272876739502 214 39 40 7
0.3732125163078308 0.18955886363983154 0.5451153516769409 31 119 180 1
0.3747449517250061 4.1872172355651855 0.5705117583274841 174 199 232 2
0.24384921789169312 4.551549911499023 1.7908886671066284 214 39 40 7
0.3715146481990814 0.8223059177398682 -1.0389387607574463 152 223 138 6
-0.2837589681148529 -0.5310452580451965 -0.3934938609600067 0 255 0 221
0.1970926970243454 -1.0028395652770996 3.1337978839874268 148 103 189 9
0.3726368546485901 -2.1552183628082275 3.6421074867248535 0 255 0 221
0.014057371765375137 0.2085287868976593 -0.33076345920562744 255 127 14 3
-0.09410995990037918 0.273535817861557 -0.3320896029472351 255 187 120 4
-0.30940088629722595 -0.06507048010826111 -0.4769245982170105 255 187 120 4
0.7449045777320862 4.746094226837158 1.7010197639465332 255 127 14 3
-0.4157201945781708 -1.8538686037063599 4.390699863433838 255 152 150 8
-0.18357451260089874 0.3340264856815338 -0.4961455464363098 174 199 232 2
-0.34311532974243164 0.8224416971206665 -0.9557217359542847 0 0 255 222
-0.09534436464309692 0.07407591491937637 -0.31858986616134644 174 199 232 2
-0.27171099185943604 -0.24052685499191284 2.7265737056732178 255 127 14 3
-0.288338840007782 -0.6757525205612183 -0.3299448788166046 0 255 0 221
0.9021978378295898 3.8566508293151855 1.9988797903060913 44 160 44 5
-0.11979124695062637 -1.5774296522140503 3.1893484592437744 255 152 150 8
-0.10820620507001877 0.1860940158367157 -0.4074115455150604 255 187 120 4
0.05867461860179901 0.12232960015535355 -0.2743101418018341 44 160 44 5
0.00876451376825571 0.01541584637016058 -0.28642499446868896 44 160 44 5
0.21701613068580627 0.5193279385566711 -0.24929594993591309 255 0 0 220
0.12235575169324875 0.011656212620437145 -0.2991349697113037 174 199 232 2
0.24064785242080688 0.20889952778816223 -0.11378408223390579 255 152 150 8
0.00042819013469852507 0.3345000743865967 -0.29155123233795166 44 160 44 5
0.45304474234580994 2.4900691509246826 1.8338013887405396 255 187 120 4
0.4289909601211548 3.0337090492248535 1.9070755243301392 255 187 120 4
-0.22996442019939423 0.7790687084197998 -0.015390533022582531 255 127 14 3
-0.33208608627319336 0.4617835581302643 2.958138942718506 31 119 180 1
1.1904418468475342 -0.7322547435760498 3.3393898010253906 31 119 180 1
0.20349504053592682 -0.8578347563743591 3.7767248153686523 255 187 120 4
-0.022127145901322365 0.368002325296402 -0.3219843804836273 44 160 44 5
-0.1839229166507721 0.05617238208651543 -0.45058080554008484 44 160 44 5
0.4428108334541321 2.3611981868743896 1.8174030780792236 255 187 120 4
-0.1129942312836647 0.4531836211681366 -0.42208993434906006 174 199 232 2
-0.03225955739617348 0.37200501561164856 -0.32647454738616943 44 160 44 5
-0.18585337698459625 -0.09917262196540833 2.49485182762146 255 127 14 3
0.8427003622055054 -0.5551177263259888 3.110173463821411 31 119 180 1
0.026281027123332024 0.31745484471321106 -0.2918146848678589 44 160 44 5
-0.42153096199035645 0.7029786109924316 -0.9574933648109436 174 199 232 2
-0.45516061782836914 0.6706706881523132 -1.0200096368789673 214 39 40 7
0.1867685317993164 0.011381879448890686 -0.28564926981925964 152 223 138 6
0.25467583537101746 0.4070647358894348 -0.24054735898971558 255 0 0 220
0.028468644246459007 0.31325894594192505 -0.29246848821640015 44 160 44 5
0.1361348032951355 1.2524995803833008 1.8217259645462036 255 152 150 8
0.36702823638916016 0.6536216139793396 -0.1255882978439331 174 199 232 2
-0.17444589734077454 0.303102970123291 -0.4916057586669922 255 127 14 3
-0.14610666036605835 3.795142889022827 1.673213005065918 255 127 14 3
1.09408700466156 3.8778231143951416 1.458641767501831 0 0 255 222
-0.6021108031272888 0.5685927867889404 -0.8266248106956482 31 119 180 1
0.31066516041755676 -2.2139978408813477 3.609022855758667 0 255 0 221
0.35274621844291687 0.1814088523387909 0.1558699756860733 31 119 180 1
0.2236226350069046 0.5253021121025085 -0.25800564885139465 44 160 44 5
-0.055560704320669174 0.26482006907463074 -0.3058326244354248 214 39 40 7
0.014736611396074295 -0.0017560352571308613 -0.29030218720436096 44 160 44 5
-0.2117941528558731 0.31201454997062683 -0.5402972102165222 255 127 14 3
-0.4662497639656067 0.6664255857467651 -1.0155036449432373 214 39 40 7
1.4460370540618896 -1.3058017492294312 3.226752519607544 31 119 180 1
-0.5221935510635376 -1.230624794960022 3.2148702144622803 31 119 180 1
-0.07803825289011002 -0.11591607332229614 -0.33290529251098633 174 199 232 2
0.03779373690485954 4.30185604095459 1.8557394742965698 214 39 40 7
-0.0594511404633522 -0.14760513603687286 2.152426242828369 214 39 40 7
-0.10444393008947372 4.078434944152832 0.7564668655395508 174 199 232 2
0.3483051657676697 0.6178377270698547 -0.36753788590431213 255 0 0 220
-0.1418529897928238 0.10546402633190155 -0.4282251298427582 255 187 120 4
-0.3778735101222992 0.612630307674408 -0.7934191823005676 152 223 138 6
-0.13781170547008514 0.4243567883968353 -0.44432806968688965 255 127 14 3
1.851111650466919 0.15662837028503418 2.996887445449829 31 119 180 1
1.5582280158996582 0.33609092235565186 3.213777780532837 174 199 232 2
-0.35122552514076233 -0.24226006865501404 -0.36887648701667786 255 187 120 4
-0.05219447240233421 0.3803265392780304 -0.348334938287735 44 160 44 5
0.7296524047851562 3.781397581100464 2.229626417160034 44 160 44 5
0.294124573469162 -0.0653156042098999 -0.16761039197444916 44 160 44 5
0.3352150022983551 -0.07377219945192337 -0.16179096698760986 44 160 44 5
-0.2789531946182251 -0.47041642665863037 2.798588752746582 255 127 14 3
-1.3094327449798584 0.40737342834472656 2.276832103729248 174 199 232 2
0.15197204053401947 0.1851332038640976 -0.19263142347335815 255 152 150 8
-0.20548352599143982 -0.48983731865882874 -0.4113714098930359 0 255 0 221
0.015608018264174461 0.3226689398288727 2.072833299636841 255 152 150 8
-0.17064452171325684 0.40228724479675293 -0.43634650111198425 255 187 120 4
-0.0800514817237854 0.05397799238562584 -0.33880943059921265 44 160 44 5
-1.1535176038742065 1.9796019792556763 1.9215679168701172 255 152 150 8
-0.29767802357673645 2.8598885536193848 1.9862878322601318 255 152 150 8
-1.3833210468292236 1.826462984085083 1.8874026536941528 255 152 150 8
0.19105428457260132 0.16777192056179047 -0.14306482672691345 255 152 150 8
-0.5419847965240479 -1.3175033330917358 3.16196346282959 31 119 180 1
-0.3049210011959076 0.8150599598884583 -1.169463038444519 152 223 138 6
-0.16767026484012604 0.06824338436126709 -0.4390832781791687 44 160 44 5
0.49320122599601746 0.05335535109043121 2.1989080905914307 255 127 14 3
-0.8593180775642395 0.7053502202033997 -0.8680049180984497 255 152 150 8
-2.8381271362304688 0.7223180532455444 3.264038562774658 31 119 180 1
-0.2661565840244293 -0.07773346453905106 -0.5131000876426697 44 160 44 5
0.3952065408229828 4.2050089836120605 0.5591785907745361 174 199 232 2
0.680459201335907 0.9228396415710449 -0.03788943961262703 174 199 232 2
-0.24316483736038208 -1.8061890602111816 3.042081594467163 0 255 0 221
0.8962326049804688 -0.6732602119445801 3.1318511962890625 31 119 180 1
-0.612240195274353 0.49763989448547363 -0.16567620635032654 255 187 120 4
0.7148417234420776 2.1927475929260254 -0.07550984621047974 255 127 14 3
-0.04387885332107544 4.184690475463867 1.6378822326660156 214 39 40 7
-0.2593414783477783 0.2930547595024109 3.0021350383758545 31 119 180 1
-0.33536863327026367 -1.9486579895019531 2.9661500453948975 0 255 0 221
-0.3853006362915039 -0.8936830163002014 3.1942923069000244 255 152 150 8
-0.2976441979408264 0.22205860912799835 3.038278579711914 31 119 180 1
1.486451268196106 -1.6654213666915894 3.06087589263916 0 255 0 221
-0.007746133487671614 -1.7759376764297485 4.346292018890381 255 152 150 8
-0.13853806257247925 0.05225259065628052 2.6746182441711426 255 127 14 3
0.5997965335845947 0.9079655408859253 3.142573118209839 31 119 180 1
0.24102428555488586 -2.1299827098846436 3.68827486038208 0 255 0 221
0.173321932554245 1.5128498077392578 2.33595871925354 255 187 120 4
-0.08477990329265594 0.2624582052230835 -0.3744499981403351 255 187 120 4
0.6065272092819214 0.7583675384521484 3.223585605621338 31 119 180 1
-0.06338077038526535 2.9394514560699463 1.7791615724563599 255 152 150 8
0.46998921036720276 2.513404130935669 1.863835096359253 255 187 120 4
0.3884219229221344 2.318640947341919 2.0706417560577393 255 187 120 4
-0.3965177834033966 0.6649465560913086 -0.922836184501648 174 199 232 2
0.08079250901937485 -0.21515202522277832 3.036432981491089 255 127 14 3
1.228244423866272 -0.8190248012542725 3.267601251602173 31 119 180 1
-0.13397632539272308 0.09152592718601227 -0.4339238703250885 255 187 120 4
1.2610461711883545 -1.173887014389038 3.2623496055603027 31 119 180 1
1.1209845542907715 3.5536065101623535 1.7668302059173584 255 127 14 3
-0.12064126878976822 -1.1155732870101929 3.414985179901123 214 39 40 7
-0.3715091347694397 -0.05334259942173958 2.4883902072906494 174 199 232 2
-0.2947154641151428 3.992863893508911 1.8028929233551025 214 39 40 7
-0.15587522089481354 0.0856240913271904 -0.4145302474498749 255 187 120 4
-0.16401724517345428 2.743701457977295 1.831590175628662 255 152 150 8
0.09827293455600739 0.794906497001648 1.8181298971176147 255 152 150 8
0.027151018381118774 4.47739839553833 1.9367141723632812 214 39 40 7
0.10245279967784882 0.11432601511478424 -0.3006511926651001 255 127 14 3
-1.147295594215393 2.1879770755767822 1.8903018236160278 255 152 150 8
0.23116081953048706 2.773606061935425 2.3930892944335938 255 187 120 4
-0.1739412248134613 0.03994469344615936 -0.46290522813796997 44 160 44 5
0.40909266471862793 1.454555869102478 2.764223098754883 152 223 138 6
-0.1863764375448227 0.3268827199935913 -0.5145688652992249 174 199 232 2
0.44597291946411133 0.3698750138282776 2.6762826442718506 214 39 40 7
-0.6283767819404602 2.5423691272735596 2.16690993309021 255 187 120 4
0.026643147692084312 0.16792817413806915 -0.2815726399421692 255 127 14 3
-0.5452868938446045 0.642739474773407 0.048601943999528885 255 187 120 4
0.9437494277954102 -0.5035260915756226 3.1002166271209717 31 119 180 1
-0.15260572731494904 0.10162261873483658 -0.3941862881183624 255 187 120 4
0.3057853579521179 2.256540060043335 2.212103843688965 255 187 120 4
-0.13279440999031067 0.4601324498653412 -0.3726416528224945 255 187 120 4
-0.6438549160957336 2.4825856685638428 2.2028539180755615 255 152 150 8
-0.11766508966684341 0.17811448872089386 -0.38210850954055786 255 187 120 4
0.6612535715103149 -0.3137580454349518 3.1281468868255615 255 127 14 3
0.9659576416015625 4.0787506103515625 1.3014076948165894 255 127 14 3
0.6878461241722107 1.4738210439682007 2.4408681392669678 255 127 14 3
-0.655336320400238 0.4927898645401001 -0.4952563941478729 44 160 44 5
0.13417337834835052 4.009833812713623 1.437556266784668 214 39 40 7
1.6069374084472656 1.3589386940002441 1.791421890258789 31 119 180 1
0.09862695634365082 0.0849941074848175 -0.24984383583068848 44 160 44 5
-0.12756071984767914 0.43229907751083374 -0.428145170211792 174 199 232 2
0.2775575518608093 2.578814744949341 2.289149522781372 255 187 120 4
-0.6117717027664185 0.41296547651290894 3.1299171447753906 31 119 180 1
0.10798975080251694 4.236124515533447 1.3975424766540527 44 160 44 5
0.029435895383358 0.004714622162282467 -0.33487334847450256 44 160 44 5
-0.6670383214950562 3.889174699783325 2.1111176013946533 255 127 14 3
-0.4309796094894409 0.6203265190124512 -0.9063287377357483 152 223 138 6
-0.5609761476516724 0.6310416460037231 -0.8447144031524658 31 119 180 1
-0.08111892640590668 0.039918798953294754 -0.343536376953125 44 160 44 5
0.06638621538877487 -0.6264302134513855 3.170929431915283 255 127 14 3
-0.373638391494751 0.6197829246520996 -0.8094072341918945 152 223 138 6
1.4536285400390625 1.7921922206878662 1.5454845428466797 255 187 120 4
-0.5650608539581299 0.6709221601486206 -0.8870812654495239 255 127 14 3
-0.5152768492698669 -1.5001790523529053 3.4265329837799072 31 119 180 1
0.07589253038167953 0.1544337123632431 -0.3119836151599884 255 187 120 4
0.01673833653330803 -1.9252208471298218 3.880361795425415 0 255 0 221
-0.043345171958208084 0.36802294850349426 -0.3212648928165436 44 160 44 5
-0.18237237632274628 0.34554505348205566 -0.4990290403366089 255 187 120 4
-0.4189438819885254 -1.5262483358383179 3.3915233612060547 31 119 180 1
-0.29942625761032104 -0.4074394702911377 -0.20673424005508423 255 127 14 3
2.019557237625122 2.2557997703552246 1.711806058883667 214 39 40 7
-0.07430645823478699 2.388075351715088 1.5920484066009521 255 152 150 8
1.1533869504928589 3.4675183296203613 2.1850392818450928 214 39 40 7
-0.0974811241030693 3.3014020919799805 1.744061827659607 174 199 232 2
-0.29942190647125244 -0.09444239735603333 -0.5050035119056702 44 160 44 5
-0.09440480172634125 0.32865244150161743 -0.34528249502182007 44 160 44 5
-0.1319521814584732 0.4282005727291107 -0.42964252829551697 174 199 232 2
-0.5897138714790344 -0.7105387449264526 3.1580095291137695 31 119 180 1
-0.04726850986480713 0.4021656811237335 -0.34449729323387146 174 199 232 2
-0.144434854388237 0.116963230073452 -0.4269861578941345 44 160 44 5
0.946540892124176 -0.5076481699943542 2.110332489013672 255 127 14 3
-0.7175025343894958 3.9119865894317627 2.0876379013061523 174 199 232 2
0.3447374105453491 4.159270763397217 0.5869885683059692 174 199 232 2
0.15656964480876923 0.18635043501853943 -0.1934027373790741 255 152 150 8
1.1033967733383179 3.283555746078491 1.902665615081787 44 160 44 5
0.759081244468689 4.403385639190674 1.8122484683990479 255 127 14 3
0.11421626806259155 0.07983998954296112 -0.2789943814277649 44 160 44 5
0.2392534464597702 0.010749929584562778 -0.21672137081623077 44 160 44 5
0.3982320725917816 -0.8847218751907349 2.638540029525757 255 127 14 3
0.00030083299498073757 0.015754759311676025 -0.31619253754615784 44 160 44 5
-0.15603220462799072 0.778897762298584 2.843240737915039 31 119 180 1
-0.49876856803894043 0.5859602689743042 0.018386708572506905 255 187 120 4
0.36534401774406433 4.023107051849365 0.6905885338783264 174 199 232 2
-0.2802905738353729 -0.23113027215003967 -0.26692187786102295 174 199 232 2
0.16505244374275208 0.38330918550491333 3.0377109050750732 255 187 120 4
-0.059527717530727386 -1.9076745510101318 3.65173077583313 0 255 0 221
0.21910834312438965 0.3328951597213745 -0.2512282431125641 255 0 0 220
0.40380072593688965 4.100735664367676 0.6529898047447205 174 199 232 2
0.04795929044485092 0.17279565334320068 -0.3087637424468994 152 223 138 6
0.1959962248802185 0.20130771398544312 -0.13276250660419464 255 152 150 8
-0.03247559070587158 0.5966585278511047 2.0843186378479004 255 187 120 4
-0.05056128278374672 0.07057353854179382 -0.2603076100349426 152 223 138 6
-0.17258326709270477 0.37707141041755676 -0.44259804487228394 255 187 120 4
0.14420929551124573 0.23775680363178253 -0.18697932362556458 255 152 150 8
0.07635385543107986 0.23271486163139343 -0.2279631346464157 255 187 120 4
0.010904988273978233 0.3948175311088562 1.8508059978485107 255 152 150 8
-0.3743073046207428 0.6414435505867004 -0.8946598172187805 174 199 232 2
-0.29320892691612244 -0.46487557888031006 2.7986388206481934 255 127 14 3
-0.5209385752677917 2.685938835144043 2.226081609725952 255 187 120 4
-0.10617521405220032 0.18979734182357788 -0.40702807903289795 255 187 120 4
-0.29821497201919556 -0.9640249609947205 2.6623380184173584 255 187 120 4
0.2163729965686798 -0.8351542353630066 2.54902720451355 152 223 138 6
0.1331639587879181 -0.8572749495506287 2.5654618740081787 152 223 138 6
-0.18215420842170715 0.4898175001144409 2.51020884513855 255 152 150 8
0.3059055209159851 -2.059049606323242 3.6831283569335938 0 255 0 221
-0.13981808722019196 -0.000528417993336916 2.5330326557159424 255 127 14 3
-0.17810994386672974 0.330893874168396 3.1957476139068604 31 119 180 1
0.19510482251644135 -1.8887375593185425 3.640554666519165 0 255 0 221
0.5183055996894836 2.3552112579345703 2.3305912017822266 31 119 180 1
1.1070327758789062 1.9884589910507202 2.4911000728607178 255 127 14 3
0.09395493566989899 0.12723998725414276 2.3505051136016846 31 119 180 1
1.0720819234848022 -0.3553529381752014 3.3247272968292236 31 119 180 1
-0.24408912658691406 -1.0669623613357544 2.6514763832092285 255 187 120 4
0.5481799840927124 -2.0107693672180176 3.561269998550415 0 255 0 221
0.47131863236427307 3.118387222290039 1.8790093660354614 255 187 120 4
0.7005171775817871 4.361665725708008 1.5204099416732788 255 127 14 3
0.38627779483795166 3.1144073009490967 1.9228421449661255 255 187 120 4
0.598685085773468 -0.7548880577087402 2.5181806087493896 148 103 189 9
0.11516201496124268 0.06973882764577866 2.3203601837158203 255 127 14 3
-0.020447559654712677 -1.9830162525177002 4.085849761962891 0 255 0 221
0.003862682031467557 4.5355544090271 1.82210111618042 214 39 40 7
0.20021037757396698 2.306885004043579 2.0047600269317627 255 152 150 8
0.005527670960873365 3.150607109069824 1.4539183378219604 174 199 232 2
-0.17984524369239807 -2.1829826831817627 3.7462856769561768 0 255 0 221
-0.7578837275505066 2.4321627616882324 2.289036989212036 255 187 120 4
0.42057764530181885 2.938828706741333 1.8906041383743286 255 187 120 4
0.20878233015537262 0.2047768086194992 -0.13429613411426544 44 160 44 5
1.3629488945007324 -1.3188204765319824 3.3072521686553955 0 255 0 221
0.46283459663391113 0.46839168667793274 2.649662971496582 255 127 14 3
-0.3119426667690277 -1.5695630311965942 3.9444386959075928 174 199 232 2
0.41200175881385803 0.5035410523414612 2.675851821899414 214 39 40 7
0.1482647955417633 4.071637153625488 1.4555370807647705 214 39 40 7
1.1773351430892944 3.515664577484131 2.179687023162842 152 223 138 6
0.4972381293773651 2.6633450984954834 1.8088175058364868 255 187 120 4
0.05019732564687729 0.2661530077457428 -0.2285611778497696 255 152 150 8
1.1016722917556763 -1.3172802925109863 3.2491836547851562 0 255 0 221
-0.8563263416290283 2.3474581241607666 2.429746389389038 255 187 120 4
-0.26514649391174316 -0.8226533532142639 3.2837953567504883 255 152 150 8
0.9655988812446594 3.6805214881896973 2.5336339473724365 44 160 44 5
0.2804056406021118 3.8516321182250977 2.346404790878296 0 0 255 222
0.4236892759799957 1.949741244316101 1.840861439704895 255 187 120 4
0.4707968235015869 3.046050786972046 2.4458370208740234 31 119 180 1
0.45748212933540344 0.9678950905799866 2.9659829139709473 174 199 232 2
0.3180011808872223 0.2738412022590637 2.244715452194214 255 127 14 3
-0.26644089818000793 0.20065772533416748 2.816366672515869 255 127 14 3
-0.09785547107458115 0.3868016302585602 3.0956339836120605 255 152 150 8
-0.4363716244697571 -1.4103091955184937 3.4765114784240723 31 119 180 1
0.44318321347236633 -2.0039775371551514 3.5318245887756348 0 255 0 221
-0.2446182519197464 -0.1489441841840744 3.1813642978668213 255 152 150 8
0.6511258482933044 0.36348846554756165 3.105215072631836 31 119 180 1
-0.08916512131690979 0.2034997195005417 -0.40191689133644104 255 187 120 4
-0.38918474316596985 3.6736180782318115 1.799553632736206 214 39 40 7
0.4785994291305542 2.658130168914795 2.3725712299346924 31 119 180 1
0.126852884888649 0.07583600282669067 -0.24675285816192627 44 160 44 5
-0.09657180309295654 0.2933330237865448 -0.32904762029647827 214 39 40 7
-0.8894835710525513 0.6421910524368286 -0.8480296730995178 255 152 150 8
-0.3274257779121399 -0.4717707633972168 -0.24064552783966064 255 187 120 4
0.09461522847414017 0.4833921492099762 2.04897403717041 255 152 150 8
1.078366756439209 -0.8161684274673462 3.152859687805176 31 119 180 1
0.0310501791536808 0.15948407351970673 -0.2794681489467621 44 160 44 5
0.27613475918769836 4.144191265106201 0.6381744146347046 174 199 232 2
-0.40882208943367004 0.7075159549713135 -0.9372352957725525 174 199 232 2
0.3593845069408417 -1.4811536073684692 3.890794038772583 214 39 40 7
0.47440096735954285 -0.881773054599762 2.8892385959625244 214 39 40 7
-0.06198085844516754 0.4140126705169678 -0.33161428570747375 44 160 44 5
-0.43417295813560486 0.6294617652893066 -0.8597082495689392 152 223 138 6
0.53291916847229 -0.8222569823265076 2.6107866764068604 148 103 189 9
0.0036043815780431032 0.30779674649238586 2.5649373531341553 255 127 14 3
-0.5246684551239014 0.5916429162025452 -0.7602437734603882 255 187 120 4
0.7649374008178711 -2.588514804840088 4.528335094451904 255 152 150 8
-0.10232586413621902 -0.3956218361854553 3.5830130577087402 255 152 150 8
1.442238688468933 -1.1809386014938354 3.4008963108062744 0 255 0 221
0.6779988408088684 0.44704318046569824 2.633183240890503 255 127 14 3
2.3268234729766846 9.199838638305664 8.86181926727295 44 160 44 5
-4.889408588409424 7.505151271820068 7.2806854248046875 31 119 180 1
0.13358384370803833 -2.111729860305786 4.4466166496276855 255 152 150 8
1.7153033018112183 0.5236751437187195 3.073421001434326 174 199 232 2
-0.10885824263095856 -0.6597204208374023 3.8072996139526367 255 152 150 8
-0.6629518866539001 -0.5236198306083679 3.102386474609375 31 119 180 1
1.158888816833496 3.742879867553711 2.4621496200561523 44 160 44 5
0.6186763644218445 2.687934637069702 3.725229501724243 31 119 180 1
1.0821284055709839 4.554205894470215 1.816142201423645 255 127 14 3
1.0696591138839722 -2.4452860355377197 4.072413921356201 174 199 232 2
1.2154728174209595 3.5308003425598145 2.3604423999786377 44 160 44 5
-0.5259886980056763 -0.03655076399445534 3.212047576904297 31 119 180 1
1.1369620561599731 3.8244075775146484 1.9480924606323242 255 127 14 3
0.23193323612213135 0.47308430075645447 -0.2551211714744568 255 0 0 220
-0.12082129716873169 0.44220903515815735 -0.4255289137363434 174 199 232 2
-0.10126186907291412 0.18917210400104523 -0.4031691253185272 255 187 120 4
-0.08499202132225037 0.2660782039165497 -0.3776049017906189 44 160 44 5
0.9334564805030823 -0.12992189824581146 3.3501429557800293 31 119 180 1
-0.046907320618629456 0.438746839761734 -0.33928364515304565 255 152 150 8
-0.15901798009872437 -1.534138798713684 4.375247001647949 255 152 150 8
0.10441180318593979 0.15328842401504517 3.221238374710083 255 127 14 3
0.08082056790590286 -0.11163461208343506 3.5679872035980225 255 152 150 8
0.4548494815826416 -0.8723900318145752 2.7542922496795654 148 103 189 9
0.9094234108924866 -0.7346096634864807 3.41994047164917 214 39 40 7
-0.3881882429122925 0.28132909536361694 2.595597267150879 255 187 120 4
0.5412891507148743 4.003352165222168 1.4500375986099243 255 127 14 3
-0.538763165473938 0.23366083204746246 2.374666929244995 174 199 232 2
-0.06317593902349472 -1.0557278394699097 4.163984298706055 255 152 150 8
-0.04232965037226677 -0.09430158138275146 2.0628130435943604 214 39 40 7
0.516940712928772 0.022546790540218353 2.7614030838012695 255 187 120 4
-0.04900570958852768 -1.3149712085723877 4.260326862335205 255 152 150 8
0.5223118662834167 -1.9915192127227783 3.5859198570251465 0 255 0 221
0.33350494503974915 2.279258966445923 1.6458650827407837 255 187 120 4
0.45044273138046265 2.4292452335357666 1.8657643795013428 255 187 120 4
-0.012407278642058372 3.003354787826538 1.4303902387619019 255 127 14 3
1.0828630924224854 3.5350029468536377 2.158872127532959 152 223 138 6
0.02551545947790146 0.5892155170440674 1.9829307794570923 255 152 150 8
1.5670604705810547 1.67172110080719 1.8148510456085205 174 199 232 2
0.25075167417526245 -0.9826400279998779 3.06581974029541 148 103 189 9
-0.2780928909778595 -0.801438570022583 2.6452112197875977 255 127 14 3
0.642675518989563 -0.7163907289505005 2.4950246810913086 148 103 189 9
1.5827387571334839 0.33557066321372986 3.242736577987671 174 199 232 2
-0.005668481811881065 0.36080434918403625 -0.3097338080406189 44 160 44 5
-0.624521791934967 3.529554843902588 1.7789138555526733 255 127 14 3
1.7283364534378052 0.3818199634552002 2.9951224327087402 31 119 180 1
1.2097417116165161 1.5887277126312256 2.5840749740600586 255 127 14 3
-0.43570399284362793 0.655889093875885 1.9206117391586304 255 127 14 3
0.03769836202263832 4.040609836578369 1.6946632862091064 214 39 40 7
0.013693355023860931 0.25719699263572693 2.940133810043335 255 127 14 3
0.4928729832172394 0.17489419877529144 2.839475631713867 255 187 120 4
1.1703572273254395 1.9032537937164307 2.4549810886383057 174 199 232 2
0.3860947787761688 3.060314893722534 1.7442458868026733 255 187 120 4
0.49875152111053467 4.075905799865723 1.5898033380508423 44 160 44 5
0.07758031040430069 0.20055356621742249 3.135831832885742 255 187 120 4
0.5748821496963501 4.203686237335205 1.939468264579773 44 160 44 5
0.18501940369606018 0.05034792795777321 -0.2197897732257843 44 160 44 5
-0.731895923614502 3.4884414672851562 1.7894294261932373 255 127 14 3
0.9743939638137817 1.2987422943115234 2.5856130123138428 255 152 150 8
0.2076713740825653 -0.1947610229253769 2.040191650390625 255 127 14 3
1.2821502685546875 -0.9496973156929016 3.3019590377807617 31 119 180 1
-0.1210591122508049 0.15652838349342346 3.1171927452087402 255 187 120 4
-0.1450490951538086 0.13296237587928772 -0.3722584843635559 255 127 14 3
-0.21198579668998718 -0.5800167918205261 2.553414821624756 255 127 14 3
0.2807847559452057 -0.9782810211181641 3.0274107456207275 148 103 189 9
-0.0942651629447937 0.32620376348495483 -0.33639875054359436 44 160 44 5
0.10050398111343384 3.662323474884033 1.7728281021118164 174 199 232 2
0.8447171449661255 -0.08280129730701447 3.3990938663482666 31 119 180 1
0.6451898813247681 0.2694545388221741 2.1519839763641357 255 127 14 3
-1.703184962272644 0.5598189830780029 2.526022434234619 214 39 40 7
-0.24179424345493317 -0.8136934638023376 2.610630989074707 255 127 14 3
0.46774181723594666 2.4762189388275146 1.8437104225158691 255 187 120 4
1.3396589756011963 -1.2461655139923096 3.269726514816284 31 119 180 1
0.6487747430801392 2.1048240661621094 2.7278785705566406 31 119 180 1
0.26702919602394104 2.190382719039917 2.2656631469726562 255 187 120 4
0.057374466210603714 -0.2663896679878235 3.7286155223846436 255 187 120 4
0.8823177218437195 -0.6768468618392944 3.1321895122528076 31 119 180 1
-0.07210567593574524 0.14419624209403992 -0.3180902898311615 255 127 14 3
0.43381211161613464 2.2473597526550293 1.8276340961456299 255 187 120 4
-0.8898085951805115 2.4017629623413086 2.5715112686157227 255 187 120 4
1.0070666074752808 3.5416665077209473 2.438568115234375 44 160 44 5
1.7847366333007812 0.16239644587039948 2.9331719875335693 31 119 180 1
0.8995787501335144 0.8422873020172119 2.635664701461792 31 119 180 1
-0.507757842540741 0.6441715359687805 -1.016459584236145 214 39 40 7
0.9554125070571899 3.8965606689453125 1.3900176286697388 255 127 14 3
-0.04555228352546692 0.13867329061031342 -0.34729519486427307 31 119 180 1
-0.09762221574783325 0.5104909539222717 -0.3781718611717224 174 199 232 2
0.42043960094451904 0.8547075390815735 -1.2762150764465332 255 127 14 3
-0.1616160124540329 0.4156399071216583 -0.4161869287490845 255 187 120 4
0.3929916024208069 2.3123087882995605 1.781086802482605 255 187 120 4
0.524569571018219 4.037473678588867 1.3950109481811523 152 223 138 6
-0.28664925694465637 0.07638224214315414 2.777716875076294 255 127 14 3
0.2242693156003952 0.48402678966522217 -0.24561694264411926 255 0 0 220
-0.17193782329559326 0.3188905715942383 -0.4926723837852478 174 199 232 2
-0.5505664944648743 -2.101386070251465 3.8106133937835693 0 255 0 221
-0.12235794216394424 0.1106894239783287 1.909032940864563 255 152 150 8
-0.22027912735939026 -0.6311205625534058 2.552187919616699 255 127 14 3
0.13193564116954803 0.06516769528388977 -0.32861092686653137 255 127 14 3
1.6909306049346924 0.1986856758594513 3.1912953853607178 174 199 232 2
-0.08093675225973129 0.2646426260471344 -0.3880092203617096 255 187 120 4
0.602785587310791 0.0732199028134346 2.128133535385132 255 127 14 3
1.1489711999893188 1.7144801616668701 2.3785769939422607 255 127 14 3
0.4363540709018707 2.4026992321014404 1.8887574672698975 255 187 120 4
-0.15352287888526917 3.93025803565979 1.74494206905365 174 199 232 2
-0.5601983666419983 -1.6455315351486206 2.189800977706909 0 255 0 221
-0.12197316437959671 0.44372326135635376 -0.4287017583847046 174 199 232 2
1.0050941705703735 1.4019078016281128 2.6595001220703125 31 119 180 1
-0.08036990463733673 0.2931930422782898 -0.3804420530796051 255 187 120 4
-0.03436386585235596 0.3639990985393524 -0.285354346036911 44 160 44 5
0.577032744884491 3.414659261703491 1.7842820882797241 255 187 120 4
0.22969473898410797 0.4709421396255493 -0.24772556126117706 255 0 0 220
-0.0021428808104246855 0.22472339868545532 -0.3235790729522705 255 127 14 3
0.5380598902702332 4.293264865875244 1.489089012145996 255 127 14 3
-0.12235832214355469 0.1604229062795639 -0.3485507071018219 255 127 14 3
-0.0032406968530267477 0.3013021647930145 -0.26491302251815796 152 223 138 6
-0.16982829570770264 0.2814863622188568 2.6258699893951416 255 127 14 3
0.034051477909088135 0.2030210793018341 2.878854751586914 31 119 180 1
-0.1893160045146942 0.3423427641391754 -0.5165119767189026 174 199 232 2
0.006663128733634949 -0.002441825345158577 -0.27855050563812256 152 223 138 6
0.1657150387763977 0.03736003860831261 -0.25267064571380615 44 160 44 5
-0.8422687649726868 -1.9809609651565552 3.8213448524475098 0 255 0 221
0.5375324487686157 2.0258259773254395 1.9758714437484741 31 119 180 1
0.5457391738891602 3.8283605575561523 1.585560917854309 255 127 14 3
-0.6316640377044678 -0.47855237126350403 3.1483047008514404 31 119 180 1
0.12129712849855423 1.4777897596359253 1.9529595375061035 255 127 14 3
0.5900053381919861 0.4232260584831238 3.0589828491210938 31 119 180 1
-0.43303540349006653 0.6937938928604126 0.09854087978601456 255 187 120 4
0.41041168570518494 0.09531629085540771 2.227762222290039 255 127 14 3
0.3254029452800751 1.997653603553772 2.0463171005249023 255 187 120 4
0.5279879570007324 0.25318923592567444 2.171879529953003 255 127 14 3
-0.10166320204734802 -0.40616172552108765 3.1406843662261963 255 127 14 3
0.03622886911034584 1.2155890464782715 2.1016976833343506 255 152 150 8
-0.02827465906739235 0.013952304609119892 -0.38545647263526917 31 119 180 1
0.2983778119087219 1.1740753650665283 1.856505274772644 255 187 120 4
0.03815694898366928 -0.29361650347709656 3.170058250427246 255 152 150 8
0.73277747631073 0.5061724781990051 2.2755751609802246 255 127 14 3
-0.14882108569145203 -0.23507235944271088 1.908836007118225 214 39 40 7
-0.1744418442249298 -0.7446486353874207 2.7346720695495605 255 127 14 3
-0.08341403305530548 0.429948627948761 -0.3133404850959778 255 127 14 3
0.9347301721572876 3.4968574047088623 2.353111743927002 31 119 180 1
-0.2873891592025757 -1.5971044301986694 3.7705185413360596 174 199 232 2
-0.01764710620045662 0.3592822253704071 -0.3201286792755127 44 160 44 5
1.2251123189926147 -0.7991968393325806 3.3228468894958496 31 119 180 1
0.4951021075248718 4.172636032104492 1.5794520378112793 44 160 44 5
0.09538806974887848 0.10896053910255432 -0.2491193413734436 255 127 14 3
0.06078715622425079 0.24196437001228333 2.8676917552948 255 127 14 3
0.6790987253189087 -0.6204931735992432 2.2073254585266113 148 103 189 9
-0.11783982813358307 0.4694274961948395 -0.39750567078590393 255 187 120 4
0.6894738078117371 3.8110079765319824 1.710234522819519 44 160 44 5
-0.35153669118881226 -2.1174731254577637 3.741431951522827 0 255 0 221
0.1155882403254509 0.5551483035087585 3.0349528789520264 31 119 180 1
0.14103847742080688 3.2229480743408203 2.229090690612793 0 0 255 222
-0.2984987199306488 -2.090420722961426 3.6837809085845947 0 255 0 221
1.346630573272705 -1.1792268753051758 3.3171629905700684 31 119 180 1
0.5469909310340881 3.8304390907287598 1.2824746370315552 44 160 44 5
1.6582292318344116 3.7187106609344482 1.829860806465149 214 39 40 7
0.14720144867897034 0.8488090634346008 1.8229576349258423 255 152 150 8
0.4909534156322479 0.24497126042842865 2.138049364089966 255 127 14 3
0.16221950948238373 3.763554334640503 1.994724988937378 255 152 150 8
0.12925168871879578 0.613174557685852 0.07625703513622284 174 199 232 2
1.7081712484359741 0.22947734594345093 3.2528769969940186 174 199 232 2
-0.23286323249340057 -0.03484230488538742 3.149061679840088 255 152 150 8
0.4770326316356659 2.8505637645721436 1.8342547416687012 31 119 180 1
-0.5546823143959045 0.43988680839538574 0.006648841314017773 255 187 120 4
-1.4394744634628296 -0.444469690322876 2.4354889392852783 255 187 120 4
0.03001575917005539 -0.9971187710762024 3.1503517627716064 255 127 14 3
0.9564207792282104 -0.7187104821205139 3.150614023208618 31 119 180 1
1.5459257364273071 3.524279832839966 1.7427388429641724 214 39 40 7
0.5062634944915771 -1.8964091539382935 3.430161237716675 0 255 0 221
0.13191208243370056 0.072881318628788 -0.23314742743968964 44 160 44 5
0.05467284470796585 0.7396260499954224 0.2645623981952667 44 160 44 5
0.27962109446525574 1.7764300107955933 2.7194461822509766 174 199 232 2
0.018070878461003304 -0.7027767896652222 3.9842793941497803 255 152 150 8
1.0438709259033203 3.5180511474609375 2.5149879455566406 44 160 44 5
-0.2659759819507599 0.286019504070282 -0.5789639353752136 255 127 14 3
-0.1939922720193863 3.824390411376953 1.7185406684875488 214 39 40 7
-0.1357322484254837 0.4827995002269745 -0.36711177229881287 255 187 120 4
-0.0019071304704993963 0.2262948751449585 -0.32456326484680176 255 127 14 3
-0.26845502853393555 3.6700470447540283 1.7035425901412964 255 127 14 3
0.49706900119781494 3.3945705890655518 1.7901852130889893 255 187 120 4
0.8737650513648987 3.906961679458618 1.2675074338912964 255 127 14 3
-0.1386122703552246 0.4162616729736328 -0.4578118920326233 174 199 232 2
0.11311077326536179 0.8508239388465881 -0.8190996050834656 255 187 120 4
-0.2776764929294586 -0.8705143928527832 2.703294515609741 255 127 14 3
-0.09798303991556168 0.22226274013519287 -0.3766762316226959 44 160 44 5
0.01345724705606699 0.47819414734840393 1.7501226663589478 255 152 150 8
-0.27104076743125916 -0.11607091128826141 2.9836294651031494 31 119 180 1
-0.04243262857198715 -0.08294607698917389 -0.6571325659751892 255 187 120 4
1.6474820375442505 3.712263345718384 1.8505775928497314 214 39 40 7
0.04758043959736824 -1.0754914283752441 3.8442325592041016 255 152 150 8
0.3479471206665039 -0.07141738384962082 -0.1601352095603943 44 160 44 5
-0.2764914333820343 -0.42114657163619995 -0.18151576817035675 255 127 14 3
1.2374119758605957 -1.0920054912567139 3.232923746109009 31 119 180 1
1.1932623386383057 -0.9917493462562561 3.2039597034454346 31 119 180 1
0.6085159182548523 3.7826435565948486 1.6838115453720093 44 160 44 5
0.9109257459640503 3.7536797523498535 1.277448296546936 255 127 14 3
-0.19645154476165771 0.02576896920800209 3.158332586288452 255 187 120 4
-0.565513014793396 0.6820644736289978 0.9232990741729736 44 160 44 5
0.2749345302581787 0.42400652170181274 2.756256341934204 255 152 150 8
-0.3032738268375397 -0.062166448682546616 -0.4880875051021576 44 160 44 5
1.3364394903182983 -1.0143373012542725 3.235588312149048 31 119 180 1
0.7442085146903992 0.030581822618842125 2.9508519172668457 31 119 180 1
-0.3274230659008026 0.6079587340354919 -0.8160874843597412 255 187 120 4
-0.037581916898489 0.2465115636587143 1.816401481628418 255 152 150 8
-0.031172821298241615 2.647965431213379 1.7684848308563232 44 160 44 5
-0.40802302956581116 -1.6759198904037476 3.4251513481140137 31 119 180 1
-0.08180613070726395 0.296823114156723 -0.3681454658508301 255 187 120 4
0.08764135837554932 0.23144634068012238 -0.21990936994552612 44 160 44 5
0.1662646234035492 0.6347522735595703 0.04250006377696991 174 199 232 2
-0.6424544453620911 2.5248219966888428 2.2621517181396484 255 187 120 4
-0.1127234399318695 -0.7164466381072998 2.7433934211730957 255 127 14 3
0.9544264674186707 -0.17825637757778168 3.3678231239318848 255 187 120 4
0.1920815259218216 0.6110739707946777 -0.25443705916404724 255 0 0 220
-0.10438699275255203 0.4880104064941406 -0.3990761339664459 255 187 120 4
-0.10469614714384079 0.4824596047401428 -0.3962859511375427 255 187 120 4
-1.1653006076812744 0.4689115285873413 2.2719905376434326 174 199 232 2
0.35669443011283875 0.2361232191324234 0.5258771181106567 31 119 180 1
1.2507439851760864 3.222876787185669 2.0066659450531006 214 39 40 7
0.15218175947666168 0.054213814437389374 -0.3199532926082611 255 127 14 3
-0.2700675427913666 -0.5313838124275208 -0.38879823684692383 0 255 0 221
0.26940134167671204 0.4692612886428833 -0.23916217684745789 255 0 0 220
0.052237942814826965 0.2650579512119293 -0.22006098926067352 255 0 0 220
-0.07968025654554367 0.033503208309412 -0.3651667535305023 174 199 232 2
-0.09682400524616241 -1.7331469058990479 3.958240270614624 31 119 180 1
0.013216464780271053 -0.2966475486755371 3.730527877807617 255 152 150 8
1.6427381038665771 0.4519820213317871 3.14141845703125 174 199 232 2
